# .PCD v0.7 - Point Cloud Data file format
VERSION 0.7
FIELDS x y z intensity
SIZE 4 4 4 4
TYPE F F F F
COUNT 1 1 1 1
WIDTH 791
HEIGHT 1
VIEWPOINT 0 0 0 1 0 0 0
POINTS 791
DATA ascii
6.2111812 -5.7902498 -0.44517794 0
1.3751705 -3.3445005 -0.44407502 0
-4.7432647 -1.7321826 -0.44175214 0
-3.188664 -1.7324233 -0.4455559 0
-8.1334829 -0.34787822 -0.42655104 0
-5.0940347 -0.15515487 -0.44581512 0
-0.39608812 2.2412 -0.44235823 0
-8.0493317 2.7223859 -0.44518346 0
0.23262249 2.7865112 -0.44283792 0
-4.065321 3.0637937 -0.4452711 0
1.5806563 3.0603561 -0.42290172 0
4.0301943 3.0726163 -0.44338879 0
6.2765818 -3.77355 -0.38394329 0
6.2904506 -2.6134057 -0.35710123 0
-0.46551999 -1.7388643 -0.34992239 0
0.069367588 -1.7398909 -0.24491905 0
6.2892594 1.9945645 -0.34583399 0
-5.3276439 3.0707347 -0.32215917 0
0.48757839 3.0787606 -0.38269767 0
5.9134793 3.0729625 -0.34928891 0
6.2927465 -7.8955765 -0.17642151 0
0.42896962 -1.7337511 -0.093467422 0
-8.1419773 -0.34824565 -0.14215282 0
6.2903514 3.0747783 -0.12224867 0
0.42818597 -1.7305759 0.12466478 0
0.41697511 -1.7304744 0.24997254 0
6.2990737 3.0790319 0.36741263 0
6.2871327 -7.8885303 0.52847344 0
0.42829111 -1.7309893 0.4444916 0
-8.2120514 -0.25014025 0.43067247 0
-5.1710649 3.0657947 0.52605081 0
-8.2015409 -0.24982417 0.71797204 0
6.3022289 3.0805693 0.61368281 0
6.2839513 -7.8845387 0.88190264 0
-5.3295546 3.0718265 0.97440267 0
5.4230185 3.0772116 0.98754036 0
6.2895331 3.0743587 0.85954201 0
6.2763925 -6.6171231 1.1196556 0
-8.4734488 -0.67621487 1.0438116 0
6.2949362 -7.8983216 1.2399304 0
6.2936759 3.0763738 1.3616568 0
6.2914939 -7.894001 1.5986115 0
-5.3327246 3.0736513 1.4211293 0
5.4077196 3.0685163 1.6659869 0
6.2763605 3.0679047 1.6128148 0
6.2883391 -7.3190737 1.8754759 0
6.2932792 -3.9975109 1.9975671 0
6.2818532 -6.1517072 2.0296962 0
2.1415982 -8.2207308 -0.44534981 0
2.3403556 -8.1559496 -0.44484887 0
2.7889071 -8.0168991 -0.44503233 0
3.1607072 -7.8692393 -0.44463232 0
3.4696653 -7.7520933 -0.44526532 0
3.6539795 -7.6533532 -0.44462362 0
3.9782515 -7.4859409 -0.44451675 0
4.2597589 -7.3482609 -0.44528875 0
4.4390855 -7.241148 -0.44530329 0
4.7472963 -7.0445623 -0.44536126 0
4.9109497 -6.9142909 -0.44462723 0
5.205555 -6.6987491 -0.44484624 0
5.5725017 -6.4059849 -0.44517022 0
5.9893627 -6.0112319 -0.44494179 0
6.293015 -5.5152678 -0.43870041 0
1.340811 -4.8989854 -0.44447547 0
1.4595356 -4.860209 -0.444058 0
6.2839861 -5.1752996 -0.42681044 0
1.6979542 -4.7861333 -0.4444567 0
2.0688608 -4.6478019 -0.44531602 0
2.3079293 -4.54322 -0.4459264 0
6.2871299 -4.8608613 -0.41664106 0
2.5510273 -4.4004035 -0.44516069 0
2.8883064 -4.1923013 -0.44562444 0
6.2810302 -4.4960442 -0.40496385 0
3.0635388 -4.044013 -0.44395825 0
3.2930148 -3.8809547 -0.44548979 0
1.4372102 -3.3198178 -0.4442533 0
1.5419911 -3.2814851 -0.44527033 0
3.636847 -3.5489435 -0.44483531 0
1.7657964 -3.1605227 -0.44477844 0
2.0770731 -2.9739797 -0.44563615 0
3.8666685 -3.3053107 -0.4451451 0
4.0402045 -3.0971622 -0.44562569 0
-8.3524933 -1.5380595 -0.44506508 0
-7.987638 -1.7433558 -0.42839369 0
-7.5112367 -1.7363997 -0.40395942 0
-4.7778234 -1.6245252 -0.44156748 0
-4.2568607 -1.7350329 -0.40214461 0
-3.2874031 -1.5323532 -0.44534174 0
-3.1017494 -1.7128978 -0.43515822 0
-2.7876287 -1.7444785 -0.40376318 0
-2.2366481 -1.6635283 -0.44178796 0
-1.7994474 -1.6613684 -0.4293018 0
-1.4661084 -1.7011536 -0.43708894 0
-1.0815412 -1.7044785 -0.42807212 0
-0.65757722 -1.7361128 -0.42925411 0
-8.4092665 -1.1418653 -0.44470853 0
-4.9302392 -1.2360955 -0.44474357 0
-3.3950312 -1.2814914 -0.44578776 0
-2.5152309 -1.2487211 -0.44500449 0
-2.3937795 -1.4574996 -0.44395939 0
-1.84539 -1.3514071 -0.44556442 0
-1.4012797 -1.3150082 -0.44472271 0
-1.1022385 -1.4115508 -0.44503349 0
-0.68363523 -1.5092243 -0.44490117 0
-8.450778 -0.7266587 -0.44443408 0
-8.3588781 -0.56371212 -0.43896908 0
-5.0135999 -0.81732166 -0.44450265 0
-3.515022 -0.8871187 -0.44530138 0
-2.6560781 -0.91469479 -0.44530582 0
-2.1130822 -0.88348585 -0.44564953 0
-1.8637637 -0.98702091 -0.4452613 0
-1.4832633 -0.99954873 -0.44436663 0
-1.2188866 -1.1349988 -0.44627917 0
-8.2204962 -0.35195205 -0.43114778 0
-5.0731421 -0.41734985 -0.44538349 0
-3.6145129 -0.31084463 -0.44541138 0
-3.5789006 -0.53095478 -0.44430321 0
-2.8247883 -0.33063781 -0.45042515 0
-2.7563019 -0.53089887 -0.44492173 0
-2.2229147 -0.52578378 -0.44453689 0
-1.7288291 -0.47600815 -0.44551182 0
-1.5511775 -0.58193296 -0.4446848 0
-5.0777807 -0.21717979 -0.44459361 0
-3.6209669 -0.15486915 -0.44496146 0
-3.6042075 -0.1838035 -0.44312495 0
-2.8099651 -0.085583471 -0.44522613 0
-2.8008516 -0.1890319 -0.44465423 0
-2.2743843 -0.19084601 -0.44391996 0
-1.7805184 -0.19256698 -0.44473767 0
-3.6090069 0.46964025 -0.446814 0
-2.7716184 0.40704888 -0.44370085 0
-2.2630157 0.38465554 -0.44631043 0
-1.7657344 0.3374382 -0.44618672 0
-5.0199914 0.77934313 -0.44446349 0
-3.5861614 0.51158303 -0.44473031 0
-3.5446968 0.73677683 -0.44464847 0
-2.7183692 0.68475729 -0.44438806 0
-2.1821568 0.68303478 -0.44505805 0
-1.6988808 0.57000959 -0.44525155 0
-1.5170014 0.67225838 -0.44543731 0
-8.3977833 1.2332472 -0.44476017 0
-4.9484539 1.1362326 -0.4442718 0
-3.4513056 1.1084306 -0.44525945 0
-2.5874414 1.0825183 -0.44457233 0
-2.052886 1.0170654 -0.44560507 0
-1.7942201 1.0923235 -0.44356501 0
-1.4169896 1.094507 -0.44474012 0
-1.1306193 1.206767 -0.44312981 0
-8.3335257 1.6636258 -0.44527429 0
-4.8543711 1.5099497 -0.44475859 0
-3.2946687 1.5162443 -0.44556236 0
-2.4255219 1.4028937 -0.44399139 0
-2.3004527 1.6148398 -0.44518521 0
-1.7539325 1.4667412 -0.44534421 0
-1.3153609 1.4013691 -0.44454232 0
-1.0008196 1.4849522 -0.44485992 0
-0.58562303 1.5512748 -0.44496912 0
-8.2282076 2.0858395 -0.44478261 0
-4.7707944 1.7787126 -0.44538003 0
-4.6935148 1.9500115 -0.44461536 0
-3.1700058 1.7755315 -0.44609135 0
-3.0522349 1.9475412 -0.44462338 0
-2.1129084 1.8436985 -0.44454035 0
-1.7400793 1.8550478 -0.44398519 0
-1.3503591 1.8421938 -0.44467682 0
-0.99063605 1.864072 -0.44566652 0
-0.49369949 1.7271196 -0.44609207 0
-8.1241007 2.4722626 -0.4449504 0
-4.5386095 2.2913413 -0.44481993 0
-2.8450038 2.248698 -0.44544476 0
-2.6645508 2.4533625 -0.44467843 0
-1.7190348 2.2121475 -0.44423518 0
-1.4608433 2.3996119 -0.44497034 0
-0.8986637 2.1040308 -0.44505399 0
-0.57510024 2.2124493 -0.44474554 0
-7.9653287 2.9141378 -0.44436553 0
-7.6951571 2.9764845 -0.43227452 0
-7.3268967 2.9913471 -0.4146229 0
-4.3708644 2.5913062 -0.44448483 0
-4.2568192 2.7967248 -0.44559118 0
-2.480433 2.6382916 -0.44472653 0
-2.2784822 2.8231061 -0.4453994 0
-1.2626251 2.5072672 -0.44476032 0
-0.93662602 2.6443584 -0.44470751 0
-0.54466236 2.7515965 -0.44451809 0
0.15262236 2.7918239 -0.44285533 0
-7.2695012 3.0727291 -0.41348103 0
-7.0426025 3.0794265 -0.40269789 0
-4.0726824 3.0168824 -0.44338313 0
-3.6675153 3.074656 -0.41868672 0
-3.4199727 3.0723047 -0.40212658 0
-2.0772507 2.9682353 -0.4449681 0
-1.6966404 3.0735118 -0.43122265 0
-1.2904025 3.081985 -0.41031441 0
-0.0077874581 2.8168907 -0.44619682 0
0.13024402 2.8049064 -0.44469333 0
1.6583694 3.0702684 -0.42844394 0
1.9300259 3.0368061 -0.44201705 0
2.2622442 2.8348587 -0.44544578 0
3.521436 3.0811782 -0.40940881 0
3.9463165 3.0586834 -0.43687862 0
4.2293057 2.8310075 -0.44543117 0
3.3972659 -12.719489 -0.23002462 0
3.7347088 -12.719036 -0.2316111 0
4.2497368 -12.717961 -0.23429146 0
4.6034184 -12.726082 -0.23645845 0
4.9597774 -12.724345 -0.23862225 0
5.5097427 -12.726934 -0.24232231 0
5.8771148 -12.708824 -0.24465802 0
6.1721888 -12.725977 -0.24713284 0
6.2758169 -12.544429 -0.24508817 0
6.2774196 -12.171287 -0.23928869 0
6.2880549 -11.489312 -0.22885391 0
6.2784262 -11.144133 -0.22349989 0
6.2880707 -10.847178 -0.21907908 0
6.2879114 -10.401447 -0.21238029 0
6.2866011 -9.9774618 -0.20606045 0
6.285315 -9.4518471 -0.19833879 0
6.2790246 -9.1951466 -0.19455796 0
6.28514 -8.8501062 -0.18967539 0
6.2883515 -8.4087038 -0.18347532 0
6.2774014 -7.585659 -0.17205201 0
6.2829361 -7.223103 -0.16728359 0
6.2879248 -6.7969465 -0.16180725 0
6.2936625 -6.3953938 -0.15679002 0
6.2857718 -6.007134 -0.15193363 0
6.2875795 -5.5106134 -0.14609231 0
6.2832804 -5.1747761 -0.14223869 0
6.2940335 -4.8661528 -0.13901611 0
6.2814822 -4.3241611 -0.26594573 0
6.2882748 -4.0490317 -0.26136145 0
6.2844248 -3.6223216 -0.12674266 0
6.2998095 -3.6326797 -0.12708513 0
6.2797065 -3.2361693 -0.12344839 0
6.2879691 -2.7966542 -0.12025748 0
-8.4727259 -1.7403792 -0.15089911 0
6.288095 -2.3888493 -0.23544526 0
-8.7683983 -1.4668467 -0.15509951 0
-7.9762335 -1.7408712 -0.14242868 0
-7.5341787 -1.7417077 -0.13490884 0
-7.1233797 -1.7392758 -0.2562063 0
-6.7477989 -1.7357581 -0.2432626 0
-6.2731409 -1.7366672 -0.22743016 0
-5.4751534 -1.7356718 -0.20071883 0
-5.04459 -1.7368292 -0.18639761 0
-4.6662068 -1.7361517 -0.17388287 0
-4.1670074 -1.7379982 -0.23611878 0
-3.8521574 -1.73735 -0.22181007 0
-3.4315758 -1.7369083 -0.20164901 0
-3.067796 -1.7394371 -0.18505387 0
-2.6249697 -1.738171 -0.22013469 0
-2.236362 -1.7386214 -0.19839561 0
-1.8144147 -1.7365069 -0.21943127 0
-1.4317141 -1.7386348 -0.19764821 0
-1.0328108 -1.7386987 -0.21306752 0
-0.64932108 -1.7386807 -0.1962781 0
-0.28547323 -1.7365758 -0.1864026 0
0.088323005 -1.7359687 -0.15262221 0
0.38541999 -1.7399802 -0.093740702 0
6.288353 -2.0203161 -0.11541389 0
-8.6718636 -1.1237236 -0.15254951 0
6.2947865 -1.5822886 -0.11341055 0
-8.5261469 -0.73358166 -0.14928184 0
-8.3419209 -0.56257272 -0.14584412 0
6.2912927 -1.1559366 -0.11176515 0
-8.2179461 -0.35193682 -0.14349036 0
6.2882195 -0.79888815 -0.11075033 0
6.2860198 -0.38904017 -0.11003225 0
6.288939 0.036891941 -0.10986303 0
6.2968802 0.3858988 -0.11021166 0
6.2927613 0.73681104 -0.11066869 0
6.2867136 1.1713055 -0.11170141 0
6.2842865 1.5760211 -0.11316645 0
-21.415264 2.7867417 -0.37665299 0
-20.869547 2.9771135 -0.36766776 0
6.2843904 2.0147603 -0.23099415 0
-17.731705 2.9760725 -0.31357664 0
-16.501345 2.9786255 -0.29244152 0
-15.397923 2.9753935 -0.27351192 0
-14.426824 2.9722059 -0.25689012 0
-13.599633 2.9765568 -0.24279229 0
-12.841677 2.9765804 -0.22989491 0
-11.544252 2.9767706 -0.20791289 0
-10.978904 2.9754279 -0.19837342 0
-10.467159 2.9753628 -0.18977231 0
-9.991931 2.9735351 -0.1818042 0
-9.5618935 2.9740188 -0.17463063 0
-9.175869 2.9781754 -0.16823557 0
-8.8038788 2.9775803 -0.16207327 0
-8.1497517 2.9816067 -0.15133364 0
-7.6939721 2.9759822 -0.14386123 0
-7.313796 2.985996 -0.13776068 0
6.2847829 2.428165 -0.11766575 0
-7.2966194 3.0841892 -0.13814025 0
-7.0318918 3.0747411 -0.13383333 0
-6.4911404 3.0786691 -0.2507534 0
-6.0897346 3.0739408 -0.2382741 0
-5.7438092 3.0788679 -0.22761147 0
-5.2197928 3.0727222 -0.2110413 0
-4.9081597 3.0744331 -0.20215671 0
-4.4988213 3.0807965 -0.19085361 0
-4.110496 3.0767801 -0.17959231 0
-3.6985707 3.0783055 -0.16845664 0
-3.3038087 3.0785046 -0.23658524 0
-2.8870852 3.0798404 -0.22130708 0
-2.4862831 3.0762281 -0.20759135 0
-2.0890694 3.0752966 -0.19531776 0
-1.6776757 3.0757434 -0.18377222 0
-1.2869037 3.0737941 -0.17479607 0
-0.91447949 3.0759385 -0.22465168 0
-0.50150651 3.0750463 -0.21845426 0
-0.093803421 3.0758328 -0.21554075 0
0.29027715 3.0779049 -0.21660277 0
0.70371926 3.0757928 -0.16555396 0
1.0885984 3.0736682 -0.17127004 0
1.5011631 3.074192 -0.17950505 0
1.8989938 3.0765827 -0.18991616 0
2.2852058 3.0747736 -0.2010591 0
2.6924269 3.0809083 -0.21456608 0
3.0496261 3.0740893 -0.22716826 0
3.4134126 3.0732181 -0.23945516 0
3.9546189 3.0723078 -0.17467952 0
4.2384944 3.0696003 -0.091356948 0
6.2860351 2.852977 -0.12054721 0
3.8962741 3.0854526 -0.17433767 0
4.3143306 3.0756984 -0.18490244 0
4.7754874 3.070477 -0.19832407 0
5.1275454 3.0774655 -0.20886406 0
5.4239345 3.0777569 -0.21787322 0
5.8284307 3.0731375 -0.22893281 0
6.2826962 -4.2675776 0.39790857 0
6.2734456 -3.9849031 0.38936436 0
6.2881708 -4.103631 0.39337993 0
6.2798858 -3.6197133 0.37975109 0
6.2977438 -3.6314743 0.38092697 0
6.2901425 -3.241611 0.37077287 0
6.2939062 -2.799166 0.36093742 0
6.2918296 -2.3461177 0.35182562 0
-7.1353693 -1.7422143 0.38499787 0
-6.7626987 -1.7396011 0.36601499 0
-6.2733178 -1.7367283 0.34119633 0
-5.4830914 -1.7382103 0.30149922 0
-5.041996 -1.7359319 0.27950573 0
-4.6778655 -1.740467 0.2616137 0
-4.1525617 -1.7370402 0.31428829 0
-3.8576941 -1.7398735 0.29598418 0
-3.4421747 -1.7419885 0.26988247 0
-3.0659461 -1.7384387 0.24670063 0
-2.6230729 -1.7388942 0.27527139 0
-2.237087 -1.7393087 0.24828739 0
-1.8150384 -1.7365794 0.26374543 0
-1.4299277 -1.7366002 0.2369177 0
-1.0342003 -1.7388824 0.24886799 0
-0.64780217 -1.7394363 0.22888491 0
-0.22905037 -1.7365354 0.24704097 0
0.12742886 -1.736186 0.24573478 0
0.39065686 -1.7398452 0.21957338 0
6.2864056 -2.0196047 0.34599173 0
6.2882495 -1.5808117 0.33975825 0
6.284925 -1.1548848 0.33485481 0
6.2817397 -0.79791707 0.33182275 0
6.2817044 -0.38872424 0.32980618 0
6.2805061 0.036745992 0.32910645 0
6.2931952 0.38571125 0.33042073 0
6.2875471 0.73618537 0.33173069 0
6.2923946 1.1723963 0.33543423 0
6.2849302 1.5761684 0.33958691 0
6.280437 1.949652 0.34461999 0
6.2887712 2.4297395 0.35333323 0
-6.4695768 3.0684478 0.37538797 0
-6.096065 3.0771708 0.35800084 0
-5.7434711 3.0786955 0.34163934 0
-5.2658944 3.0779133 0.31977171 0
-4.9087873 3.0748601 0.30368087 0
-4.5348291 3.0786667 0.28737444 0
-4.1408978 3.0794444 0.27056575 0
-3.6739423 3.0800655 0.25138494 0
-3.2842391 3.0796869 0.31465256 0
-2.8803089 3.0726614 0.29477045 0
-2.4824612 3.0782635 0.27666783 0
-2.0875647 3.0749373 0.26018876 0
-1.6790606 3.0691581 0.24505246 0
-1.2876756 3.0754445 0.23339158 0
-0.90700507 3.0760851 0.28088626 0
-0.50149292 3.074734 0.27307615 0
-0.093765438 3.0766096 0.26968288 0
0.29553595 3.076699 0.27093688 0
0.70394689 3.0767531 0.27646229 0
1.0548788 3.0736418 0.284228 0
1.5021096 3.0760722 0.23965244 0
1.9278266 3.0762146 0.25407133 0
2.3257933 3.0802376 0.2701478 0
2.6905224 3.0786045 0.28598374 0
3.054719 3.079144 0.30357137 0
3.4047875 3.0721302 0.31991604 0
3.9325912 3.0746462 0.26161948 0
6.2954793 2.8575735 0.36233371 0
4.307693 3.0778255 0.27747589 0
4.781949 3.0745258 0.29792938 0
5.1247759 3.0758967 0.31323567 0
5.4296737 3.081002 0.32715222 0
5.9218664 3.0759361 0.34970745 0
3.3985801 -12.723907 0.69000208 0
3.7375834 -12.728984 0.69504988 0
4.2497311 -12.717892 0.70252597 0
4.6062641 -12.734221 0.7094695 0
4.9623604 -12.730833 0.71586299 0
5.5089893 -12.725077 0.72647381 0
5.8847003 -12.725105 0.73451567 0
6.1677475 -12.716808 0.74045575 0
6.287961 -12.568693 0.73627704 0
6.2892842 -12.194282 0.7188192 0
6.2914376 -11.495483 0.68653995 0
6.2855973 -11.156855 0.67088073 0
6.2811999 -10.83532 0.65614045 0
6.2912025 -10.406771 0.63709849 0
6.2856197 -9.9758987 0.61772257 0
6.2920227 -9.4619322 0.59529918 0
6.2755318 -9.1900282 0.58300287 0
6.2874808 -8.8533068 0.56889445 0
6.286314 -8.4060965 0.54992247 0
6.2888269 -7.5995069 0.51678479 0
6.285409 -7.2260461 0.50174844 0
6.2838836 -6.7087231 0.64178491 0
6.2855387 -6.3871226 0.62657839 0
6.2821808 -6.0036807 0.60769159 0
6.28721 -5.5102301 0.58459187 0
6.281589 -5.1732759 0.5690738 0
6.2802329 -4.8554888 0.5552786 0
6.286551 -4.4425573 0.53773391 0
6.2767935 -4.0415978 0.65301734 0
6.276711 -3.6186128 0.63379443 0
6.2934194 -3.2432871 0.61936569 0
6.2901492 -2.7975981 0.60226434 0
-8.4834166 -1.7425896 0.75777918 0
6.2870388 -2.3443191 0.58695745 0
-8.75807 -1.4650549 0.62120515 0
-8.4559088 -1.7369344 0.45248774 0
-7.962677 -1.7379243 0.56986958 0
-7.5237122 -1.7392995 0.5403133 0
-7.1022425 -1.7341303 0.63968283 0
-6.7530842 -1.7371321 0.61011124 0
-6.195065 -1.7358474 0.67531997 0
-5.476119 -1.7359707 0.60404706 0
-5.0597806 -1.7420868 0.56280249 0
-4.6441159 -1.7388037 0.6085999 0
-4.2095885 -1.7355403 0.55893636 0
-3.8092761 -1.7368913 0.66236216 0
-3.4312227 -1.7366539 0.60964268 0
-3.0328493 -1.7380112 0.61585367 0
-2.6718428 -1.7394178 0.56132358 0
-2.2367325 -1.7390203 0.60321593 0
-1.8695364 -1.7378777 0.54252809 0
-1.4315491 -1.7383487 0.52071238 0
-1.0980943 -1.7417146 0.47521472 0
-0.64460683 -1.7386141 0.463202 0
-0.26877254 -1.7343102 0.43839085 0
0.14995106 -1.7391194 0.43636879 0
0.38426059 -1.734426 0.44303244 0
6.2808948 -2.0182061 0.57716644 0
-8.6695938 -1.1233836 0.61160052 0
6.2881813 -1.5807368 0.68166643 0
-8.5155325 -0.7326051 0.59803778 0
-8.370038 -0.56447971 0.58692479 0
6.287838 -1.1553212 0.67212832 0
-8.1920261 -0.40121618 0.57370174 0
6.2878108 -0.7989468 0.6663388 0
6.2864213 -0.38888243 0.66225541 0
6.2870913 0.036855683 0.66104054 0
6.2853842 0.38516498 0.6621936 0
6.2874331 0.7360208 0.66547453 0
6.2873368 1.1713699 0.67246991 0
6.2845516 1.5486945 0.68040341 0
6.2939553 1.9539042 0.57657629 0
-14.441086 2.9751322 0.77293843 0
-13.588358 2.9740777 0.72920156 0
-12.857417 2.9802189 0.69189256 0
-11.534696 2.974298 0.62446433 0
-10.986328 2.9774315 0.59671539 0
-10.489779 2.9817851 0.57169527 0
-9.983016 2.9708743 0.54602742 0
-9.5610142 2.9737384 0.52490735 0
-9.1647558 2.9745619 0.50512344 0
-8.8119993 2.98032 0.48766497 0
-8.1456137 2.9800858 0.60685194 0
-7.7001452 2.9783585 0.57749605 0
-7.3178682 2.9876523 0.55311716 0
6.2863235 2.384254 0.58822095 0
-7.271616 3.0736146 0.55234629 0
-7.0448561 3.080404 0.53829962 0
-6.4894094 3.0779207 0.62850803 0
-6.0971308 3.0776563 0.59766436 0
-5.6953945 3.0756364 0.6799559 0
-5.2960005 3.0738575 0.64333242 0
-4.9077349 3.0741644 0.60903972 0
-4.533545 3.0777588 0.57627684 0
-4.0786605 3.0720758 0.62595922 0
-3.7029715 3.0747027 0.59141248 0
-3.3698914 3.0757058 0.5592854 0
-2.8827221 3.0752993 0.59276992 0
-2.4977131 3.0767918 0.62837797 0
-2.0897617 3.0740626 0.58960336 0
-1.6404225 3.0741992 0.61493242 0
-1.2877731 3.075593 0.58898228 0
-0.9535948 3.076972 0.56857902 0
-0.50161743 3.0756207 0.60683447 0
-0.093792073 3.0761824 0.5990963 0
0.29541826 3.0761418 0.60174704 0
0.70379496 3.0755184 0.61421192 0
1.1158092 3.0791886 0.57820946 0
1.494768 3.0747085 0.60387892 0
1.8998083 3.0780509 0.57357037 0
2.2868145 3.0768952 0.60793012 0
2.6595759 3.0756495 0.64395195 0
3.0481708 3.0725968 0.60846722 0
3.5064585 3.0801322 0.5728631 0
3.9312732 3.0735409 0.61195201 0
4.1297212 3.0689189 0.63173896 0
6.284174 2.7907693 0.60164475 0
3.880116 3.0856576 0.61002946 0
4.3337255 3.0766222 0.55917329 0
4.7949462 3.0828905 0.59940851 0
5.1217065 3.0740058 0.62803358 0
5.4206567 3.0758784 0.65527457 0
5.8327427 3.0754225 0.69180083 0
3.4027722 -12.739695 1.153452 0
3.7366619 -12.72617 1.160194 0
4.2551813 -12.734493 1.174466 0
4.6040101 -12.728082 1.1839598 0
4.959908 -12.72487 1.1946441 0
6.2818236 -12.179811 1.1987249 0
6.2870903 -11.487536 1.1454636 0
6.2865071 -11.158464 1.1202735 0
6.2830458 -10.838502 1.0958233 0
6.2909746 -10.406427 1.0636733 0
6.2798824 -9.9667892 1.0304178 0
6.2932386 -9.4637556 0.99411333 0
6.2878489 -9.208065 0.9753021 0
6.2834353 -8.8477221 0.94923311 0
6.2822881 -8.4004869 0.91755664 0
6.280643 -7.5421739 1.030861 0
6.2796855 -7.219316 1.0057645 0
6.2837143 -6.9598837 0.9856931 0
6.2806029 -6.3821025 1.0992849 0
6.2863393 -6.0074878 1.0675356 0
6.2962222 -5.5181098 1.0278252 0
6.2840991 -5.1753349 0.99947208 0
6.2838182 -4.8582773 0.97513205 0
6.2869754 -4.3854666 0.94114012 0
6.2920094 -4.0514593 1.0518981 0
6.2808528 -3.5184033 1.011562 0
6.2910638 -3.7301979 1.027696 0
6.2850738 -3.2310305 0.99355131 0
6.3063622 -3.2818086 0.87277126 0
6.2857966 -2.795646 0.96722537 0
-8.4748421 -1.7408335 1.0623862 0
6.28864 -2.3449254 0.94345111 0
-8.763979 -1.4661798 1.0911785 0
-7.9641781 -1.7382591 1.0009726 0
-7.5057859 -1.7351621 0.94596845 0
-7.1140084 -1.7370096 1.029322 0
-6.7580366 -1.7384121 0.98111743 0
-6.3589172 -1.7397161 0.92566657 0
-5.4785786 -1.7367773 1.0139154 0
-5.0506411 -1.7389789 0.94227636 0
-4.6973491 -1.7368078 0.97349119 0
-4.1892681 -1.7371023 0.96436322 0
-3.8732047 -1.7374755 0.98035485 0
-3.4306834 -1.7362863 0.95912039 0
-3.0813868 -1.7349279 0.88170564 0
-2.632472 -1.7371811 0.84524691 0
6.2882257 -2.0203118 0.92858911 0
-8.6705513 -1.1235347 1.073656 0
6.2820354 -1.5791175 1.0259814 0
-8.5878057 -0.79171771 1.0590163 0
6.2847571 -1.154735 1.0121405 0
6.2844815 -0.7983675 1.0034374 0
6.2907138 -0.38928348 0.99832147 0
6.288589 0.036869679 0.99604523 0
6.2890439 0.38534054 0.99806774 0
6.2883086 0.73618019 1.0027965 0
6.2838259 1.1706921 1.0124736 0
6.2905111 1.6599363 0.91441911 0
-21.403263 2.7851613 1.1314564 0
-20.856388 2.9752185 1.1044003 0
6.2880993 1.9521816 0.92564911 0
-17.736095 2.9767945 0.94276983 0
-16.509338 2.9800551 0.87944484 0
-15.415074 2.9786949 0.82304496 0
-12.84304 2.9768813 1.153609 0
-11.533722 2.9740417 1.0422598 0
-10.994246 2.979573 0.99674642 0
-10.472889 2.9769795 0.95272779 0
-9.9840078 2.9711657 0.91150993 0
-9.5642262 2.9747336 0.8764596 0
-9.1788025 2.9791152 1.0147396 0
-8.7947435 2.9744794 0.97636658 0
-8.1257772 2.9728243 1.0625368 0
-7.699223 2.9781144 1.0137587 0
-7.3107734 2.9847522 0.9697116 0
6.2892151 2.407624 0.94686115 0
-7.2725897 3.0740225 0.96958804 0
-7.0393486 3.0779922 0.94346756 0
-6.4883108 3.0772734 1.0094892 0
-6.0889406 3.0735471 0.95905596 0
-5.784647 3.0780091 0.92054743 0
-5.2278633 3.0774503 1.0706993 0
-4.9125838 3.0770361 1.0225167 0
-4.5304322 3.0757461 0.96598977 0
-4.1341271 3.0746009 1.0014406 0
-3.6707563 3.0772228 1.0186732 0
-3.2680593 3.0706358 1.0355617 0
-2.8850718 3.07761 0.97494352 0
-2.4813659 3.0768442 0.98638028 0
-2.0743282 3.0769455 0.92620754 0
-1.704628 3.0719993 0.87623906 0
-1.2885869 3.0780375 0.8944459 0
-0.91408426 3.0753229 0.86016738 0
-0.50229782 3.079304 0.83674228 0
-0.093637176 3.072298 0.82407969 0
0.29525965 3.073314 0.82801312 0
0.70191085 3.0675287 0.84368169 0
1.0895547 3.0763011 0.87498331 0
1.5954367 3.0790036 0.86461836 0
1.8961948 3.0721664 0.90067917 0
2.2852001 3.0747154 0.95585692 0
2.7290652 3.0742342 0.94891924 0
3.0665793 3.0741847 1.0030994 0
3.4938297 3.0753574 0.9894864 0
3.928442 3.0711455 1.060292 0
4.2018733 3.0682771 1.0102636 0
6.2877645 2.8231583 0.96925384 0
3.9881618 3.079212 0.9793418 0
4.3276253 3.078629 0.9372077 0
4.7901044 3.0798309 1.0044713 0
5.1303148 3.0790715 1.0554031 0
5.8800344 3.0781868 0.93244785 0
6.1518431 3.0772393 0.96777844 0
5.5064816 -12.719159 1.2123638 0
5.8811669 -12.717764 1.2256413 0
6.1726723 -12.726957 1.2372593 0
6.2827864 -12.558345 1.2282842 0
6.2885075 -11.162012 1.5728226 0
6.2757277 -10.825872 1.5362146 0
6.2832842 -10.393754 1.4910637 0
6.2808003 -9.9682465 1.4464207 0
6.2890959 -9.4575262 1.3943372 0
6.2914824 -9.2133846 1.3696449 0
6.286891 -8.8525705 1.3329967 0
6.2946358 -8.4170523 1.290344 0
6.2847481 -7.6420741 1.3901483 0
6.2829852 -7.2230873 1.5161128 0
6.2963395 -6.8061399 1.4684511 0
6.2929821 -6.394639 1.4208463 0
6.2840538 -6.0055361 1.3766249 0
6.284328 -5.5077186 1.323373 0
6.2867527 -5.1775851 1.4363074 0
6.2869201 -4.8607364 1.401504 0
6.2841578 -4.3833561 1.3513678 0
6.2979879 -4.055263 1.4559208 0
6.2874494 -3.5730624 1.4056543 0
6.2917252 -3.7826664 1.426863 0
6.2847166 -3.2389004 1.3743454 0
6.2840571 -2.7716091 1.4601899 0
-8.4714689 -1.7401457 1.3698437 0
6.2830057 -2.3428054 1.4257551 0
-8.755971 -1.4648645 1.4062419 0
-7.9607115 -1.7375095 1.4372056 0
-7.5318747 -1.7412002 1.363678 0
-7.106236 -1.7351185 1.4219558 0
-6.7566748 -1.7380686 1.3561813 0
-6.277812 -1.7379969 1.3849473 0
-5.4836659 -1.7384046 1.4348701 0
-5.0465961 -1.7375855 1.3312645 0
-4.6715393 -1.7380995 1.3356256 0
-4.1930609 -1.7388213 1.2163529 0
6.2826376 -2.0185843 1.4033276 0
-8.674613 -1.1240249 1.3855712 0
6.2876372 -1.5806857 1.3785944 0
-8.5294228 -0.73387229 1.3560401 0
6.2852163 -1.1550083 1.3589326 0
6.2882905 -0.79885387 1.3478267 0
6.2857518 -0.38889688 1.3391337 0
6.2868338 0.036752183 1.3367965 0
6.2907853 0.38558799 1.3400993 0
6.2896938 0.73636925 1.3465782 0
6.2892027 1.1717163 1.3604773 0
6.2837186 1.5759242 1.3776621 0
6.2895088 1.9525479 1.4003012 0
-17.720554 2.9741786 1.5722916 0
-16.48694 2.9760051 1.4659753 0
-15.401591 2.9760833 1.3726214 0
-14.437836 2.9744568 1.2898936 0
-13.598395 2.9762695 1.2180767 0
-10.478071 2.9784486 1.3376842 0
-10.008605 2.9784822 1.2823298 0
-9.5688963 2.9761829 1.2305901 0
-8.7937841 2.9741504 1.4704521 0
-8.1476173 2.9808116 1.3742497 0
-7.6212955 2.9750099 1.4418521 0
-7.3106184 2.9846852 1.3928947 0
6.287107 2.3845134 1.4297256 0
-7.286119 3.0797379 1.3955157 0
-7.0262203 3.0722487 1.3525764 0
-6.4740763 3.0705924 1.3929538 0
-6.0943437 3.0763359 1.451723 0
-5.7299218 3.0713625 1.3825047 0
-5.1994939 3.0826437 1.3956209 0
-4.9125619 3.0771832 1.4457984 0
-4.5359745 3.0792804 1.3676056 0
-4.2113261 3.0720749 1.2992593 0
-3.6678748 3.0749102 1.2827835 0
-3.3754849 3.0698974 1.2226813 0
3.4777217 3.0799663 1.2449464 0
3.9351225 3.0765367 1.3384718 0
6.2837105 2.7594736 1.4592364 0
4.3337488 3.0766323 1.3252047 0
4.7825704 3.0749166 1.4181222 0
5.0887461 3.0758228 1.4825565 0
5.4248309 3.0782332 1.3262519 0
5.8799934 3.0774167 1.4117945 0
6.1037335 3.0770786 1.3286495 0
3.3975275 -12.720242 1.6164075 0
3.7359109 -12.723476 1.6280012 0
4.2514734 -12.723031 1.6468977 0
4.5982471 -12.711995 1.6596049 0
4.954474 -12.710596 1.6748238 0
5.5071936 -12.720798 1.7017895 0
5.8866625 -12.729204 1.721764 0
6.171524 -12.724584 1.7361889 0
6.2905254 -12.573808 1.7260391 0
6.2912531 -12.198088 1.6849543 0
6.2847462 -11.48325 1.6070774 0
6.2882991 -10.847557 1.9856554 0
6.2815213 -10.390931 1.9229152 0
6.2921214 -9.9862118 1.8692167 0
6.2889829 -9.4573545 1.7986349 0
6.2894216 -9.2103643 1.7662358 0
6.2917438 -8.8594675 1.7208753 0
6.2828412 -8.4012671 1.6613983 0
6.2907043 -7.8930097 1.9617209 0
6.2835708 -7.5930424 1.9156245 0
6.3009548 -7.1538925 1.8528627 0
6.2845798 -6.7935028 1.7988671 0
6.2826071 -6.3841057 1.7409234 0
6.2824488 -5.9302711 1.835898 0
6.2870097 -5.5100746 1.7773855 0
6.2894521 -5.1799917 1.881043 0
6.2849689 -4.8591938 1.8339756 0
6.288084 -4.386169 1.7700189 0
6.2820272 -4.0449886 1.7248591 0
6.2825279 -3.5876832 1.8046323 0
6.2903543 -3.7295461 1.8233749 0
6.2831101 -3.2379816 1.7629498 0
6.2916121 -2.8915439 1.7262422 0
6.2879505 -2.344558 1.7981321 0
-8.6815872 -1.5329257 1.7140009 0
-8.4444361 -1.7346032 1.9903387 0
-7.9617991 -1.7377545 1.8814745 0
-7.5186834 -1.7381577 1.781675 0
-7.1037688 -1.7345204 1.6882792 0
-6.7532864 -1.7372012 1.6099372 0
6.2803926 -2.0179045 1.7677325 0
-8.6674376 -1.1231118 1.6990424 0
6.282444 -1.5794315 1.7359118 0
-8.5287304 -0.73379165 1.8201617 0
6.2906547 -1.155931 1.7139776 0
6.2828941 -0.79818708 1.6972104 0
6.2815809 -0.38870957 1.6865271 0
6.2821636 0.036742549 1.6834031 0
6.2886744 0.38537234 1.6884447 0
6.2837138 0.73554963 1.6952974 0
6.2798247 1.1701382 1.7118264 0
6.2838244 1.5758606 1.7361501 0
-21.412205 2.7863157 1.8894216 0
-20.887434 2.9796386 1.8462121 0
6.2837315 1.9506762 1.7630936 0
6.2797422 2.3817859 1.7997344 0
-6.4935069 3.0796866 1.6593616 0
-5.2681866 3.0792918 1.635201 0
6.290391 2.886548 1.7256262 0
5.2701969 3.0767541 1.6351527 0
5.9140749 3.0718806 1.7857453 0
6.2833743 3.0713279 1.8739544 0
6.2843223 -11.154579 2.0275583 0
6.2798209 -8.289649 2.0213003 0
6.2837243 -6.0039744 2.0062954 0
6.2846165 -4.2688923 2.0355947 0
6.2931938 -4.1069183 2.0134168 0
-8.7472725 -1.4078391 2.045584 0
-8.6650496 -1.1228702 2.0174055 0
